4.902719781e+00 5.288458024e+01 1.103000000e+00 
-1.460169691e+00 5.718537920e+01 -9.977100000e+01 
-1.429299752e+00 5.696359074e+01 -1.000990000e+02 
-1.403447504e+00 5.669386331e+01 -8.033200000e+01 
-1.341459479e+00 5.641637827e+01 -6.197600000e+01 
-1.243775726e+00 5.612893188e+01 -6.615400000e+01 
-1.103103462e+00 5.583841042e+01 -7.251600000e+01 
-9.610589967e-01 5.559229550e+01 -1.018240000e+02 
-7.840060939e-01 5.533397887e+01 -1.002830000e+02 
-6.044976909e-01 5.511738852e+01 -7.641400000e+01 
-3.868942655e-01 5.487912642e+01 -7.662100000e+01 
-1.649757291e-01 5.466330624e+01 -7.053500000e+01 
5.366954413e-02 5.447930417e+01 -6.847900000e+01 
2.629461875e-01 5.431496306e+01 -6.544000000e+01 
4.884689973e-01 5.415666668e+01 -5.981700000e+01 
6.974815363e-01 5.403087903e+01 -5.227700000e+01 
9.148899219e-01 5.391325276e+01 -4.884200000e+01 
1.142298595e+00 5.380422694e+01 -3.600300000e+01 
1.363175235e+00 5.371161416e+01 -3.065600000e+01 
1.600224853e+00 5.362523222e+01 -3.536800000e+01 
1.831426790e+00 5.355166603e+01 -2.683400000e+01 
2.041465234e+00 5.348996821e+01 -2.883100000e+01 
2.230608586e+00 5.344013216e+01 -2.764100000e+01 
2.421504974e+00 5.339426417e+01 -2.777600000e+01 
2.618256542e+00 5.334603089e+01 -3.364000000e+01 
2.806658418e+00 5.330065130e+01 -3.355400000e+01 
2.985735426e+00 5.325818522e+01 -3.331100000e+01 
3.157757532e+00 5.321795288e+01 -2.848600000e+01 
3.323292224e+00 5.318003326e+01 -2.937300000e+01 
3.482757241e+00 5.314465617e+01 -3.128400000e+01 
3.636463095e+00 5.311165075e+01 -2.923300000e+01 
3.774343236e+00 5.308239128e+01 -2.923700000e+01 
3.899639740e+00 5.305654286e+01 -2.912400000e+01 
4.012610234e+00 5.303428616e+01 -2.741300000e+01 
4.114355183e+00 5.301444063e+01 -2.759400000e+01 
4.204411831e+00 5.299750411e+01 -3.062000000e+01 
4.287666695e+00 5.298241210e+01 -2.848400000e+01 
4.361588974e+00 5.296952264e+01 -2.636900000e+01 
4.426435402e+00 5.295866737e+01 -2.517700000e+01 
4.483382564e+00 5.294952110e+01 -2.561500000e+01 
4.533733487e+00 5.294175052e+01 -2.331800000e+01 
4.578590669e+00 5.293508437e+01 -1.567200000e+01 
4.618747916e+00 5.292932557e+01 -6.593000000e+00 
4.655638439e+00 5.292503635e+01 -1.139000000e+01 
4.689189619e+00 5.292142455e+01 -1.399900000e+01 
4.720644534e+00 5.291818876e+01 8.600000000e-02 
4.802899998e+00 5.292222483e+01 -6.980000000e-01 
4.834307059e+00 5.291596131e+01 -4.680000000e-01 
4.865210938e+00 5.290877129e+01 -2.060000000e-01 
4.893081456e+00 5.290095024e+01 2.360000000e-01 
4.914886257e+00 5.289279275e+01 1.776000000e+00 
-1.209095827e+00 5.718744698e+01 -1.033110000e+02 
-1.185668998e+00 5.696643811e+01 -9.538400000e+01 
-1.157778342e+00 5.670327894e+01 -8.073100000e+01 
-1.107639511e+00 5.643537919e+01 -6.484600000e+01 
-1.022405515e+00 5.615747405e+01 -6.696000000e+01 
-8.955524877e-01 5.587464126e+01 -7.128600000e+01 
-7.627227156e-01 5.563050664e+01 -8.325400000e+01 
-5.999949713e-01 5.537732849e+01 -8.153700000e+01 
-4.376430911e-01 5.516086414e+01 -8.585700000e+01 
-2.380862798e-01 5.492601660e+01 -8.697100000e+01 
-2.886554716e-02 5.471392101e+01 -7.212700000e+01 
1.776173567e-01 5.453108218e+01 -7.846400000e+01 
3.779248883e-01 5.436803756e+01 -6.818900000e+01 
5.934380721e-01 5.421179319e+01 -6.288000000e+01 
7.933102182e-01 5.408378861e+01 -5.519100000e+01 
9.995663299e-01 5.396519873e+01 -4.442700000e+01 
1.215679020e+00 5.385548987e+01 -3.658900000e+01 
1.426086903e+00 5.376297364e+01 -3.608900000e+01 
1.653040614e+00 5.367624493e+01 -3.082300000e+01 
1.875610862e+00 5.360126619e+01 -2.601000000e+01 
2.079278205e+00 5.353826321e+01 -2.969700000e+01 
2.263880874e+00 5.348681196e+01 -2.814300000e+01 
2.451457077e+00 5.343873505e+01 -3.101600000e+01 
2.645888387e+00 5.338823236e+01 -3.262600000e+01 
2.832461770e+00 5.334091473e+01 -3.347900000e+01 
3.010037855e+00 5.329670254e+01 -3.324800000e+01 
3.180695368e+00 5.325494219e+01 -2.821100000e+01 
3.344789193e+00 5.321575022e+01 -2.788800000e+01 
3.502786764e+00 5.317929086e+01 -3.091400000e+01 
3.655319426e+00 5.314536064e+01 -2.917600000e+01 
3.792397587e+00 5.311561541e+01 -2.917700000e+01 
3.916906339e+00 5.308954637e+01 -2.907600000e+01 
4.029081455e+00 5.306709541e+01 -2.748300000e+01 
4.130184179e+00 5.304714396e+01 -2.843600000e+01 
4.219581228e+00 5.303009164e+01 -3.091800000e+01 
4.302170409e+00 5.301483900e+01 -2.996600000e+01 
4.375412814e+00 5.300175657e+01 -2.687700000e+01 
4.439555070e+00 5.299070553e+01 -2.561800000e+01 
4.495786022e+00 5.298141161e+01 -2.548400000e+01 
4.545426744e+00 5.297358014e+01 -2.306800000e+01 
4.589616300e+00 5.296693651e+01 -1.204900000e+01 
4.629354901e+00 5.296117913e+01 -3.886000000e+00 
4.666381161e+00 5.295682166e+01 -5.546000000e+00 
4.700658959e+00 5.295284925e+01 -2.298300000e+01 
4.733492608e+00 5.294918321e+01 -1.051700000e+01 
4.773729496e+00 5.294589520e+01 -5.675000000e+00 
4.812254302e+00 5.294089877e+01 -9.760000000e-01 
4.847709180e+00 5.293526165e+01 -9.630000000e-01 
4.882677676e+00 5.292716933e+01 -6.200000000e-01 
4.912092460e+00 5.291751769e+01 -4.280000000e-01 
4.936961013e+00 5.290662016e+01 3.910000000e-01 
-9.752522265e-01 5.718988661e+01 -8.968400000e+01 
-9.591710917e-01 5.696888730e+01 -8.276800000e+01 
-9.372772476e-01 5.671266675e+01 -7.693200000e+01 
-8.923868703e-01 5.645218501e+01 -6.654800000e+01 
-8.164609096e-01 5.618220143e+01 -6.686600000e+01 
-7.010941843e-01 5.590750036e+01 -6.950200000e+01 
-5.756718513e-01 5.566501428e+01 -7.362800000e+01 
-4.241467651e-01 5.541668842e+01 -6.914100000e+01 
-2.729811960e-01 5.520097347e+01 -8.287300000e+01 
-8.820415644e-02 5.497084027e+01 -7.254100000e+01 
1.089284914e-01 5.476278211e+01 -7.449400000e+01 
3.048961033e-01 5.458181764e+01 -7.978600000e+01 
4.965483832e-01 5.442017019e+01 -6.798900000e+01 
7.016410690e-01 5.426676381e+01 -5.775000000e+01 
8.928510355e-01 5.413861064e+01 -5.577400000e+01 
1.088119796e+00 5.402003050e+01 -4.320900000e+01 
1.293035202e+00 5.391058988e+01 -3.783900000e+01 
1.494078633e+00 5.381798233e+01 -3.200700000e+01 
1.711396964e+00 5.373036684e+01 -2.978900000e+01 
1.925467686e+00 5.365389060e+01 -3.578900000e+01 
2.122229809e+00 5.358918254e+01 -2.283400000e+01 
2.301740241e+00 5.353574108e+01 -2.462600000e+01 
2.485471131e+00 5.348506792e+01 -2.706400000e+01 
2.676664862e+00 5.343213180e+01 -3.136300000e+01 
2.860875383e+00 5.338252287e+01 -3.343200000e+01 
3.036472895e+00 5.333617128e+01 -3.287800000e+01 
3.205297057e+00 5.329250019e+01 -2.829000000e+01 
3.367547010e+00 5.325167751e+01 -2.788300000e+01 
3.523745019e+00 5.321380615e+01 -3.110400000e+01 
3.674745566e+00 5.317866612e+01 -2.912600000e+01 
3.810709308e+00 5.314819084e+01 -2.911900000e+01 
3.934245776e+00 5.312165124e+01 -2.907900000e+01 
4.045527000e+00 5.309878550e+01 -2.791700000e+01 
4.145857421e+00 5.307855909e+01 -2.904100000e+01 
4.234538243e+00 5.306121830e+01 -3.104200000e+01 
4.316452635e+00 5.304563005e+01 -3.009200000e+01 
4.389042965e+00 5.303216537e+01 -2.685000000e+01 
4.452513047e+00 5.302068599e+01 -2.629600000e+01 
4.508029623e+00 5.301091724e+01 -2.552900000e+01 
4.556937745e+00 5.300254699e+01 -2.448200000e+01 
4.600410833e+00 5.299523661e+01 -1.492400000e+01 
4.639296995e+00 5.298860024e+01 -5.879000000e+00 
4.675606574e+00 5.298301321e+01 -2.675000000e+00 
4.709039078e+00 5.297789820e+01 -1.780300000e+01 
4.741036860e+00 5.297371475e+01 -2.768400000e+01 
4.780507489e+00 5.297005798e+01 -1.417400000e+01 
4.824223340e+00 5.296508107e+01 -4.903000000e+00 
4.863472883e+00 5.295682855e+01 -1.152000000e+00 
4.900640845e+00 5.294770435e+01 -6.190000000e-01 
4.934128184e+00 5.293623171e+01 -1.013000000e+00 
4.961037951e+00 5.292380980e+01 -4.070000000e-01 
-7.588242488e-01 5.719263883e+01 -7.680700000e+01 
-7.476640969e-01 5.697205053e+01 -7.067400000e+01 
-7.282332213e-01 5.672267164e+01 -6.902900000e+01 
-6.861109001e-01 5.646832373e+01 -6.889200000e+01 
-6.172232436e-01 5.620533461e+01 -6.897300000e+01 
-5.121701267e-01 5.593860080e+01 -8.300700000e+01 
-3.936409043e-01 5.569768710e+01 -9.488200000e+01 
-2.519475177e-01 5.545416994e+01 -7.092400000e+01 
-1.096602002e-01 5.523950796e+01 -7.480900000e+01 
6.221351862e-02 5.501470682e+01 -7.321500000e+01 
2.480970748e-01 5.481101044e+01 -8.000600000e+01 
4.345060041e-01 5.463211289e+01 -7.084600000e+01 
6.177888732e-01 5.447189516e+01 -6.749700000e+01 
8.123908456e-01 5.432145416e+01 -5.696700000e+01 
9.958639875e-01 5.419343444e+01 -5.612700000e+01 
1.181075642e+00 5.407550619e+01 -4.968400000e+01 
1.374826430e+00 5.396714189e+01 -4.058100000e+01 
1.566722730e+00 5.387458205e+01 -3.506000000e+01 
1.774357744e+00 5.378606956e+01 -3.520100000e+01 
1.979729245e+00 5.370806272e+01 -3.107600000e+01 
2.169307137e+00 5.364157150e+01 -2.602800000e+01 
2.343400114e+00 5.358602335e+01 -2.830900000e+01 
2.522909679e+00 5.353262799e+01 -3.073000000e+01 
2.710661456e+00 5.347729449e+01 -3.110000000e+01 
2.892179273e+00 5.342526544e+01 -3.338200000e+01 
3.065423375e+00 5.337657876e+01 -3.285900000e+01 
3.232013848e+00 5.333082036e+01 -2.860200000e+01 
3.392085176e+00 5.328821734e+01 -2.892000000e+01 
3.546211143e+00 5.324878897e+01 -3.062000000e+01 
3.695360602e+00 5.321230587e+01 -2.907100000e+01 
3.829929905e+00 5.318095949e+01 -2.906200000e+01 
3.952339219e+00 5.315379019e+01 -2.929800000e+01 
4.062650229e+00 5.313034329e+01 -2.870000000e+01 
4.162031012e+00 5.310971564e+01 -2.954700000e+01 
4.249930047e+00 5.309195024e+01 -3.115100000e+01 
4.331154620e+00 5.307588236e+01 -3.047700000e+01 
4.403139514e+00 5.306188691e+01 -2.679900000e+01 
4.466045952e+00 5.304981315e+01 -2.583200000e+01 
4.521020647e+00 5.303936460e+01 -2.538100000e+01 
4.569492762e+00 5.303018843e+01 -2.507700000e+01 
4.612915043e+00 5.302186606e+01 -1.671400000e+01 
4.652886614e+00 5.301390843e+01 -8.419000000e+00 
4.686831673e+00 5.300741318e+01 -5.920000000e+00 
4.719873935e+00 5.300168904e+01 -2.796000000e+00 
4.751275393e+00 5.299739053e+01 -9.870000000e-01 
4.789799514e+00 5.299331391e+01 -1.605800000e+01 
4.835449981e+00 5.298761855e+01 -9.981000000e+00 
4.879440999e+00 5.297908656e+01 -5.722000000e+00 
4.920831899e+00 5.296844516e+01 -1.329000000e+00 
4.956750812e+00 5.295628429e+01 -2.776000000e+00 
4.987382211e+00 5.294359913e+01 -1.772000000e+00 
5.008709141e+00 5.293267540e+01 6.520000000e-01 
5.024697636e+00 5.292267758e+01 5.220000000e-01 
-5.563581463e-01 5.719688386e+01 -6.911500000e+01 
-5.472233953e-01 5.697782793e+01 -7.435600000e+01 
-5.286521367e-01 5.673477391e+01 -7.422400000e+01 
-4.885115697e-01 5.648447423e+01 -7.424900000e+01 
-4.254678861e-01 5.622671987e+01 -9.155300000e+01 
-3.299019740e-01 5.596730194e+01 -1.004200000e+02 
-2.182117908e-01 5.572808242e+01 -1.076040000e+02 
-8.530565619e-02 5.548918115e+01 -6.702000000e+01 
4.979118210e-02 5.527577523e+01 -6.984600000e+01 
2.104031490e-01 5.505668865e+01 -7.912900000e+01 
3.858668205e-01 5.485744299e+01 -8.814900000e+01 
5.636103415e-01 5.468060529e+01 -7.560300000e+01 
7.390497334e-01 5.452178020e+01 -6.610500000e+01 
9.234588427e-01 5.437436836e+01 -5.619900000e+01 
1.100010819e+00 5.424669451e+01 -5.213000000e+01 
1.276156404e+00 5.412993081e+01 -5.948700000e+01 
1.459116147e+00 5.402331006e+01 -4.681700000e+01 
1.642349609e+00 5.393085878e+01 -3.701400000e+01 
1.840666585e+00 5.384152714e+01 -3.418700000e+01 
2.037577526e+00 5.376214970e+01 -3.010500000e+01 
2.220022166e+00 5.369397244e+01 -2.881300000e+01 
2.388569133e+00 5.363635608e+01 -2.581600000e+01 
2.563585076e+00 5.358027642e+01 -2.825400000e+01 
2.747162520e+00 5.352234160e+01 -3.185200000e+01 
2.925601040e+00 5.346778318e+01 -3.330600000e+01 
3.096287196e+00 5.341687003e+01 -3.283100000e+01 
3.260490469e+00 5.336920451e+01 -2.978400000e+01 
3.418251517e+00 5.332495373e+01 -3.153700000e+01 
3.570184809e+00 5.328404013e+01 -3.029500000e+01 
3.717276172e+00 5.324623361e+01 -2.905800000e+01 
3.850202397e+00 5.321389576e+01 -2.902500000e+01 
3.971293697e+00 5.318588715e+01 -2.944800000e+01 
4.080520469e+00 5.316166755e+01 -2.907300000e+01 
4.178767177e+00 5.314051124e+01 -3.004800000e+01 
4.265823885e+00 5.312221998e+01 -3.126200000e+01 
4.346355858e+00 5.310559874e+01 -3.017000000e+01 
4.417798850e+00 5.309103694e+01 -2.650500000e+01 
4.480280186e+00 5.307838769e+01 -2.550200000e+01 
4.534914284e+00 5.306737913e+01 -2.499800000e+01 
4.583136929e+00 5.305775806e+01 -2.411900000e+01 
4.626439892e+00 5.304928222e+01 -1.781300000e+01 
4.666266731e+00 5.304163649e+01 -1.083600000e+01 
4.701064619e+00 5.303589547e+01 -5.805000000e+00 
4.801098061e+00 5.301871583e+01 -9.232000000e+00 
4.848044300e+00 5.300992730e+01 -1.155100000e+01 
4.894653370e+00 5.299984237e+01 -7.808000000e+00 
4.938939093e+00 5.298793166e+01 -6.579000000e+00 
4.977985209e+00 5.297431194e+01 -3.828000000e+00 
5.011126681e+00 5.295970228e+01 -3.088000000e+00 
5.033859810e+00 5.294741035e+01 -2.247000000e+00 
5.051135706e+00 5.293616150e+01 -2.735000000e+00 
-3.678045120e-01 5.720010940e+01 -7.321000000e+01 
-3.590498684e-01 5.698247624e+01 -7.577700000e+01 
-3.408961146e-01 5.674494135e+01 -7.127600000e+01 
-3.028956425e-01 5.649832474e+01 -1.215370000e+02 
-2.438442318e-01 5.624551427e+01 -1.006010000e+02 
-1.556191102e-01 5.599289304e+01 -1.182300000e+02 
-4.975121320e-02 5.575596466e+01 -1.228550000e+02 
7.625945583e-02 5.552174111e+01 -6.739000000e+01 
2.065381657e-01 5.531017840e+01 -6.921500000e+01 
3.587100758e-01 5.509725869e+01 -8.777900000e+01 
5.252321227e-01 5.490267536e+01 -8.859300000e+01 
6.954057514e-01 5.472829749e+01 -8.235100000e+01 
8.641197034e-01 5.457135372e+01 -6.436400000e+01 
1.039099196e+00 5.442745507e+01 -5.675400000e+01 
1.209414136e+00 5.430080081e+01 -5.116600000e+01 
1.377688706e+00 5.418616787e+01 -5.727100000e+01 
1.549859113e+00 5.408248928e+01 -7.525700000e+01 
1.724670055e+00 5.399034790e+01 -5.524500000e+01 
1.914162427e+00 5.390062119e+01 -3.521400000e+01 
2.103082086e+00 5.382030002e+01 -3.262000000e+01 
2.278589669e+00 5.375069563e+01 -3.313100000e+01 
2.441482709e+00 5.369110109e+01 -2.984400000e+01 
2.611625404e+00 5.363237954e+01 -3.092400000e+01 
2.790762012e+00 5.357198818e+01 -3.332300000e+01 
2.965609664e+00 5.351495040e+01 -3.359600000e+01 
3.133255467e+00 5.346183343e+01 -3.303900000e+01 
3.294668969e+00 5.341232723e+01 -3.143000000e+01 
3.449803630e+00 5.336651513e+01 -3.270900000e+01 
3.599250729e+00 5.332416632e+01 -3.086600000e+01 
3.743873766e+00 5.328494738e+01 -2.914200000e+01 
3.874606447e+00 5.325121795e+01 -2.899100000e+01 
3.993839191e+00 5.322181133e+01 -2.934100000e+01 
4.101509058e+00 5.319623932e+01 -2.901600000e+01 
4.198115928e+00 5.317395742e+01 -3.000100000e+01 
4.283945059e+00 5.315459086e+01 -3.120700000e+01 
4.363476011e+00 5.313694001e+01 -2.975600000e+01 
4.434158371e+00 5.312143341e+01 -2.632700000e+01 
4.496078288e+00 5.310791990e+01 -2.464300000e+01 
4.550283329e+00 5.309610970e+01 -2.467100000e+01 
4.598122109e+00 5.308575253e+01 -2.281300000e+01 
4.640948717e+00 5.307654317e+01 -1.843200000e+01 
4.680109882e+00 5.306813380e+01 -1.248100000e+01 
4.718343713e+00 5.306014175e+01 -5.412000000e+00 
4.862223323e+00 5.303090705e+01 -1.629800000e+01 
4.910013713e+00 5.301973117e+01 -3.522000000e+00 
4.956685341e+00 5.300648896e+01 -2.176000000e+00 
4.998713375e+00 5.299146010e+01 -1.357000000e+00 
5.034962447e+00 5.297528248e+01 -1.492000000e+00 
5.059549434e+00 5.296179767e+01 -1.943000000e+00 
5.077590121e+00 5.294963950e+01 -2.495000000e+00 
-1.813152382e-01 5.720304463e+01 -8.866700000e+01 
-1.734938513e-01 5.698715761e+01 -9.178800000e+01 
-1.556925791e-01 5.675439474e+01 -1.013160000e+02 
-1.194515623e-01 5.651160288e+01 -1.488570000e+02 
-6.320075231e-02 5.626348661e+01 -1.358870000e+02 
1.918327631e-02 5.601689039e+01 -1.174420000e+02 
1.198567205e-01 5.578288443e+01 -1.267020000e+02 
2.397620202e-01 5.555355592e+01 -6.755900000e+01 
3.657199873e-01 5.534439646e+01 -7.402200000e+01 
5.104348804e-01 5.513760919e+01 -8.415000000e+01 
6.687085219e-01 5.494765555e+01 -7.763000000e+01 
8.315298933e-01 5.477607587e+01 -7.490000000e+01 
9.937434906e-01 5.462135073e+01 -5.437600000e+01 
1.159651510e+00 5.448112869e+01 -5.869100000e+01 
1.323519376e+00 5.435593382e+01 -5.397900000e+01 
1.484077417e+00 5.424370985e+01 -4.660400000e+01 
1.646267779e+00 5.414280894e+01 -4.907500000e+01 
1.812705313e+00 5.405112902e+01 -7.783500000e+01 
1.993445578e+00 5.396122325e+01 -5.940900000e+01 
2.174433350e+00 5.388011923e+01 -3.451000000e+01 
2.342993282e+00 5.380921082e+01 -3.512500000e+01 
2.500094462e+00 5.374773478e+01 -3.355100000e+01 
2.665018385e+00 5.368645203e+01 -3.571800000e+01 
2.839424169e+00 5.362359866e+01 -3.698200000e+01 
3.010284279e+00 5.356411770e+01 -3.630200000e+01 
3.174467385e+00 5.350887269e+01 -3.525200000e+01 
3.332701203e+00 5.345761885e+01 -3.314300000e+01 
3.484943022e+00 5.341030985e+01 -3.292500000e+01 
3.631722599e+00 5.336655448e+01 -3.156000000e+01 
3.773748074e+00 5.332588944e+01 -2.956400000e+01 
3.902099199e+00 5.329064288e+01 -2.900500000e+01 
4.019230898e+00 5.325962547e+01 -2.896700000e+01 
4.125089285e+00 5.323244264e+01 -2.837700000e+01 
4.219953087e+00 5.320870808e+01 -2.951100000e+01 
4.304328858e+00 5.318802136e+01 -3.087700000e+01 
4.382623846e+00 5.316913166e+01 -2.868800000e+01 
4.452341878e+00 5.315250477e+01 -2.572500000e+01 
4.513539798e+00 5.313796725e+01 -2.430400000e+01 
4.567210525e+00 5.312516762e+01 -2.406800000e+01 
4.614799012e+00 5.311394948e+01 -2.188500000e+01 
4.657711985e+00 5.310396072e+01 -1.879800000e+01 
4.697341704e+00 5.309473360e+01 -1.239800000e+01 
4.735221506e+00 5.308561870e+01 -3.351000000e+00 
4.878702833e+00 5.305113259e+01 -5.535000000e+00 
4.925859901e+00 5.303967587e+01 -1.310900000e+01 
4.974668579e+00 5.302507686e+01 -1.832000000e+00 
5.019450395e+00 5.300867816e+01 -1.189000000e+00 
5.058740703e+00 5.299097842e+01 -1.624000000e+00 
5.085533551e+00 5.297621100e+01 -2.786000000e+00 
5.103894008e+00 5.296356446e+01 -2.310000000e+00 
3.274206806e-03 5.720566915e+01 -9.521200000e+01 
1.007801934e-02 5.699193867e+01 -1.107870000e+02 
2.751864172e-02 5.676349676e+01 -1.377910000e+02 
6.241072956e-02 5.652474387e+01 -1.489710000e+02 
1.167395177e-01 5.628115734e+01 -1.341260000e+02 
1.945145554e-01 5.603994120e+01 -8.406200000e+01 
2.905749720e-01 5.580937689e+01 -8.981600000e+01 
4.050906020e-01 5.558505637e+01 -7.090000000e+01 
5.271024936e-01 5.537885573e+01 -7.689500000e+01 
6.652814196e-01 5.517799356e+01 -7.673400000e+01 
8.159540287e-01 5.499255784e+01 -6.777900000e+01 
9.716035619e-01 5.482407760e+01 -6.054800000e+01 
1.127441631e+00 5.467190793e+01 -4.636000000e+01 
1.284731745e+00 5.453536091e+01 -3.983000000e+01 
1.441930437e+00 5.441202383e+01 -5.499300000e+01 
1.594965100e+00 5.430237334e+01 -5.039500000e+01 
1.748060790e+00 5.420395885e+01 -4.200800000e+01 
1.906210320e+00 5.411285395e+01 -5.133100000e+01 
2.078321433e+00 5.402292101e+01 -7.894100000e+01 
2.251466366e+00 5.394114430e+01 -4.849900000e+01 
2.413095270e+00 5.386902150e+01 -4.139900000e+01 
2.564300214e+00 5.380574359e+01 -4.027000000e+01 
2.723693281e+00 5.374198078e+01 -3.769300000e+01 
2.893055547e+00 5.367667915e+01 -3.848800000e+01 
3.059499544e+00 5.361481425e+01 -3.848100000e+01 
3.219729088e+00 5.355754431e+01 -3.835800000e+01 
3.374353219e+00 5.350463841e+01 -3.510400000e+01 
3.523433471e+00 5.345587810e+01 -3.300800000e+01 
3.667399539e+00 5.341071513e+01 -3.237100000e+01 
3.806833336e+00 5.336853052e+01 -3.042900000e+01 
3.932825656e+00 5.333161956e+01 -2.942900000e+01 
4.047741635e+00 5.329880945e+01 -2.880000000e+01 
4.151586620e+00 5.326981135e+01 -2.770700000e+01 
4.244682029e+00 5.324432696e+01 -2.861700000e+01 
4.327571898e+00 5.322203027e+01 -2.996300000e+01 
4.404582616e+00 5.320165340e+01 -2.840700000e+01 
4.473303611e+00 5.318372610e+01 -2.571300000e+01 
4.533798672e+00 5.316807203e+01 -2.421900000e+01 
4.587042338e+00 5.315430511e+01 -2.254900000e+01 
4.634491856e+00 5.314225933e+01 -2.217600000e+01 
4.677475096e+00 5.313147089e+01 -1.865100000e+01 
4.717252237e+00 5.312132766e+01 -1.222400000e+01 
4.755212308e+00 5.311110720e+01 -6.280000000e-01 
4.896204703e+00 5.307197094e+01 -2.205000000e+00 
4.942565578e+00 5.305960860e+01 -1.255500000e+01 
4.993049643e+00 5.304368457e+01 -4.269000000e+00 
5.040141468e+00 5.302603052e+01 -1.568000000e+00 
5.082159564e+00 5.300699098e+01 -3.546000000e+00 
5.111531883e+00 5.299083429e+01 -3.323000000e+00 
5.130614638e+00 5.297751814e+01 -3.068000000e+00 
1.915762111e-01 5.720802811e+01 -8.914800000e+01 
1.970192708e-01 5.699688820e+01 -9.550600000e+01 
2.139931268e-01 5.677265660e+01 -1.662700000e+02 
2.479672128e-01 5.653829317e+01 -1.451360000e+02 
3.012968373e-01 5.629941660e+01 -9.846000000e+01 
3.762097970e-01 5.606344736e+01 -8.250100000e+01 
4.690821638e-01 5.583702859e+01 -7.925500000e+01 
5.795189712e-01 5.561802868e+01 -7.337600000e+01 
6.982800951e-01 5.541547636e+01 -7.466700000e+01 
8.310593482e-01 5.522056117e+01 -6.924600000e+01 
9.750534329e-01 5.503984277e+01 -6.577100000e+01 
1.123959314e+00 5.487507347e+01 -4.998900000e+01 
1.273539880e+00 5.472614334e+01 -3.866000000e+01 
1.422599640e+00 5.459353164e+01 -3.196200000e+01 
1.572687089e+00 5.447261473e+01 -3.293200000e+01 
1.717957835e+00 5.436579926e+01 -4.569600000e+01 
1.862278081e+00 5.426973672e+01 -4.364300000e+01 
2.011976300e+00 5.417945140e+01 -3.900100000e+01 
2.175240797e+00 5.408973398e+01 -5.667400000e+01 
2.340223815e+00 5.400738793e+01 -6.896700000e+01 
2.494621997e+00 5.393413230e+01 -4.350700000e+01 
2.639597471e+00 5.386910487e+01 -4.014900000e+01 
2.792917375e+00 5.380288647e+01 -4.274800000e+01 
2.956659717e+00 5.373493510e+01 -4.118100000e+01 
3.117690028e+00 5.367060002e+01 -4.105500000e+01 
3.272822162e+00 5.361119840e+01 -4.158400000e+01 
3.422643151e+00 5.355642144e+01 -3.818100000e+01 
3.567484328e+00 5.350584805e+01 -3.490000000e+01 
3.707924745e+00 5.345879005e+01 -3.342800000e+01 
3.844496814e+00 5.341453432e+01 -3.156900000e+01 
3.968214534e+00 5.337547927e+01 -3.040000000e+01 
4.080889118e+00 5.334050741e+01 -2.909300000e+01 
4.182570408e+00 5.330938133e+01 -2.713000000e+01 
4.273657345e+00 5.328187331e+01 -2.729000000e+01 
4.354762535e+00 5.325771871e+01 -2.860000000e+01 
4.430145917e+00 5.323558996e+01 -2.778500000e+01 
4.497476008e+00 5.321608422e+01 -2.620900000e+01 
4.556838387e+00 5.319903805e+01 -2.499400000e+01 
4.609199172e+00 5.318404710e+01 -2.394200000e+01 
4.656024051e+00 5.317093456e+01 -2.282700000e+01 
4.698602009e+00 5.315920603e+01 -1.848600000e+01 
4.738131543e+00 5.314821874e+01 -1.234600000e+01 
4.775871432e+00 5.313716385e+01 -2.843000000e+00 
4.916237215e+00 5.309464688e+01 -1.743000000e+00 
4.962037918e+00 5.307985533e+01 -9.305000000e+00 
5.013022058e+00 5.306313787e+01 -1.838800000e+01 
5.062064146e+00 5.304421879e+01 -1.754500000e+01 
5.106391166e+00 5.302389431e+01 -8.414000000e+00 
5.137591330e+00 5.300668981e+01 -3.994000000e+00 
5.158557478e+00 5.299205221e+01 -4.059000000e+00 
3.879295355e-01 5.721000908e+01 -8.625700000e+01 
3.922468332e-01 5.700217755e+01 -9.873600000e+01 
4.088970746e-01 5.678234240e+01 -1.733710000e+02 
4.423579973e-01 5.655282056e+01 -1.074510000e+02 
4.950918960e-01 5.631900766e+01 -1.405780000e+02 
5.679692422e-01 5.608828986e+01 -1.006370000e+02 
6.581870337e-01 5.586649562e+01 -7.878500000e+01 
7.651130964e-01 5.565297365e+01 -7.434800000e+01 
8.806721418e-01 5.545462363e+01 -7.012800000e+01 
1.008569619e+00 5.526563384e+01 -6.320000000e+01 
1.146488390e+00 5.508985370e+01 -6.476300000e+01 
1.289003326e+00 5.492928860e+01 -3.370000000e+01 
1.432335273e+00 5.478413595e+01 -2.521600000e+01 
1.573642179e+00 5.465549241e+01 -2.248300000e+01 
1.716300096e+00 5.453741988e+01 -2.019100000e+01 
1.853621713e+00 5.443350785e+01 -2.627300000e+01 
1.989471065e+00 5.433958319e+01 -3.874600000e+01 
2.130440229e+00 5.425038214e+01 -3.681500000e+01 
2.284447678e+00 5.416110438e+01 -3.847700000e+01 
2.440810445e+00 5.407825823e+01 -5.443700000e+01 
2.587623080e+00 5.400389044e+01 -5.714400000e+01 
2.726113685e+00 5.393708631e+01 -4.225600000e+01 
2.873066263e+00 5.386835186e+01 -3.782500000e+01 
3.030941891e+00 5.379748255e+01 -4.637700000e+01 
3.185562907e+00 5.373056397e+01 -4.344500000e+01 
3.334413643e+00 5.366875609e+01 -4.277600000e+01 
3.478328916e+00 5.361156597e+01 -3.867000000e+01 
3.617928821e+00 5.355847684e+01 -3.705800000e+01 
3.753961568e+00 5.350879074e+01 -3.541100000e+01 
3.886866903e+00 5.346184051e+01 -3.263500000e+01 
4.007819789e+00 5.342024676e+01 -3.142300000e+01 
4.118029413e+00 5.338292138e+01 -2.959100000e+01 
4.217451943e+00 5.334958690e+01 -2.702700000e+01 
4.306500534e+00 5.332003640e+01 -2.637500000e+01 
4.385798006e+00 5.329400300e+01 -2.717300000e+01 
4.459505231e+00 5.327006711e+01 -2.689300000e+01 
4.525361168e+00 5.324887531e+01 -2.642400000e+01 
4.583476256e+00 5.323027940e+01 -2.616800000e+01 
4.634815308e+00 5.321386921e+01 -2.532300000e+01 
4.680842542e+00 5.319943567e+01 -2.453200000e+01 
4.722832185e+00 5.318648423e+01 -1.814900000e+01 
4.761966269e+00 5.317440019e+01 -1.217300000e+01 
4.799270161e+00 5.316219504e+01 -5.209000000e+00 
4.900134970e+00 5.312817216e+01 -1.400000000e-02 
4.938335882e+00 5.311610716e+01 -1.295000000e+00 
4.984157434e+00 5.310069624e+01 -2.299000000e+00 
5.034802909e+00 5.308336245e+01 -2.761000000e+00 
5.085812963e+00 5.306333535e+01 -5.726000000e+00 
5.132473387e+00 5.304182379e+01 -5.356000000e+00 
5.165292005e+00 5.302361477e+01 -6.461000000e+00 
5.188242400e+00 5.300760980e+01 -4.925000000e+00 
5.973526678e-01 5.721209506e+01 -9.255500000e+01 
6.008468475e-01 5.700798678e+01 -1.051890000e+02 
6.170535100e-01 5.679293375e+01 -1.281160000e+02 
6.497993284e-01 5.656871696e+01 -1.422160000e+02 
7.015418153e-01 5.634033487e+01 -1.182060000e+02 
7.723906594e-01 5.611493647e+01 -1.035400000e+02 
8.599641471e-01 5.589804751e+01 -8.254700000e+01 
9.635232864e-01 5.569018682e+01 -7.755600000e+01 
1.075733212e+00 5.549650269e+01 -7.204400000e+01 
1.198917338e+00 5.531356489e+01 -7.590200000e+01 
1.331118749e+00 5.514304388e+01 -5.067500000e+01 
1.467533990e+00 5.498708927e+01 -2.868000000e+01 
1.604638722e+00 5.484610882e+01 -2.400400000e+01 
1.738682735e+00 5.472141293e+01 -2.515100000e+01 
1.873869926e+00 5.460646377e+01 -2.284200000e+01 
2.003313020e+00 5.450537819e+01 -1.947000000e+01 
2.131033775e+00 5.441340224e+01 -2.406300000e+01 
2.263390170e+00 5.432536799e+01 -3.259000000e+01 
2.408122631e+00 5.423657636e+01 -3.511100000e+01 
2.555674314e+00 5.415321358e+01 -5.627700000e+01 
2.694680649e+00 5.407770994e+01 -6.268100000e+01 
2.826424800e+00 5.400909091e+01 -5.403000000e+01 
2.966657107e+00 5.393779859e+01 -5.277300000e+01 
3.117667655e+00 5.386406855e+01 -5.321100000e+01 
3.264966336e+00 5.379439258e+01 -4.326000000e+01 
3.406617617e+00 5.372973046e+01 -4.135000000e+01 
3.543754609e+00 5.366945550e+01 -3.787600000e+01 
3.677105281e+00 5.361318028e+01 -3.783100000e+01 
3.807544334e+00 5.356031652e+01 -3.799700000e+01 
3.935485113e+00 5.351027149e+01 -3.368000000e+01 
4.052644605e+00 5.346587602e+01 -3.166500000e+01 
4.159768265e+00 5.342604810e+01 -2.940200000e+01 
4.256593348e+00 5.339044765e+01 -2.691700000e+01 
4.343412762e+00 5.335882484e+01 -2.616600000e+01 
4.420772211e+00 5.333088701e+01 -2.633500000e+01 
4.492671319e+00 5.330511239e+01 -2.641000000e+01 
4.556892677e+00 5.328219230e+01 -2.642400000e+01 
4.613535913e+00 5.326199358e+01 -2.643400000e+01 
4.663538905e+00 5.324410516e+01 -2.592800000e+01 
4.708315109e+00 5.322825517e+01 -2.611000000e+01 
4.749131022e+00 5.321395016e+01 -1.831800000e+01 
4.787177074e+00 5.320060425e+01 -1.143700000e+01 
4.823016998e+00 5.318684336e+01 -6.240000000e+00 
4.854267982e+00 5.317556021e+01 -2.752000000e+00 
4.884800546e+00 5.316420751e+01 -3.294000000e+00 
4.921711919e+00 5.315177065e+01 -5.513000000e+00 
4.960952217e+00 5.313878653e+01 -7.240000000e-01 
5.007493028e+00 5.312252126e+01 -1.167000000e+00 
5.059188159e+00 5.310397082e+01 -2.048000000e+00 
5.111548953e+00 5.308350804e+01 -5.538000000e+00 
5.160764156e+00 5.306109901e+01 -1.717000000e+00 
5.195670471e+00 5.304174220e+01 -6.195000000e+00 
5.220510207e+00 5.302440700e+01 -8.115000000e+00 
8.256187292e-01 5.721471586e+01 -9.847800000e+01 
8.286535795e-01 5.701476431e+01 -9.799000000e+01 
8.444874106e-01 5.680482957e+01 -1.332960000e+02 
8.763423368e-01 5.658635374e+01 -1.473310000e+02 
9.264964772e-01 5.636382405e+01 -1.025450000e+02 
9.949391960e-01 5.614370100e+01 -9.151500000e+01 
1.079345263e+00 5.593203790e+01 -8.601100000e+01 
1.179246435e+00 5.573018816e+01 -8.688100000e+01 
1.287657286e+00 5.554202195e+01 -7.469000000e+01 
1.406224515e+00 5.536514044e+01 -7.079000000e+01 
1.532840527e+00 5.520022607e+01 -3.866900000e+01 
1.663191862e+00 5.504930186e+01 -3.061700000e+01 
1.793954669e+00 5.491282572e+01 -2.756400000e+01 
1.921179999e+00 5.479203402e+01 -2.411400000e+01 
2.049019520e+00 5.468043412e+01 -2.378700000e+01 
2.170952673e+00 5.458202101e+01 -2.236800000e+01 
2.290716568e+00 5.449209764e+01 -2.150400000e+01 
2.414927176e+00 5.440521682e+01 -2.283300000e+01 
2.550639754e+00 5.431690407e+01 -3.203700000e+01 
2.689265720e+00 5.423302451e+01 -4.325300000e+01 
2.820184612e+00 5.415637904e+01 -4.801400000e+01 
2.944737105e+00 5.408590752e+01 -4.914700000e+01 
3.077689071e+00 5.401199852e+01 -3.983600000e+01 
3.220663779e+00 5.393545063e+01 -4.285500000e+01 
3.359739444e+00 5.386278621e+01 -4.230000000e+01 
3.493304363e+00 5.379486754e+01 -3.780000000e+01 
3.622524903e+00 5.373114317e+01 -3.773500000e+01 
3.748189829e+00 5.367145506e+01 -3.770800000e+01 
3.871610318e+00 5.361517248e+01 -3.929000000e+01 
3.993327672e+00 5.356174367e+01 -3.590100000e+01 
4.105643589e+00 5.351422164e+01 -3.271800000e+01 
4.208861779e+00 5.347155568e+01 -2.950400000e+01 
4.302453328e+00 5.343337648e+01 -2.683700000e+01 
4.386547594e+00 5.339940396e+01 -2.610300000e+01 
4.461577523e+00 5.336931745e+01 -2.625600000e+01 
4.531340637e+00 5.334149395e+01 -2.639200000e+01 
4.593687820e+00 5.331668879e+01 -2.641700000e+01 
4.648682718e+00 5.329477734e+01 -2.644300000e+01 
4.697193631e+00 5.327534106e+01 -2.514500000e+01 
4.740496421e+00 5.325804308e+01 -2.546600000e+01 
4.779664240e+00 5.324237607e+01 -1.791800000e+01 
4.815557035e+00 5.322786575e+01 -1.160000000e+01 
4.848938576e+00 5.321422362e+01 -2.594000000e+00 
4.880586297e+00 5.320174147e+01 -3.993000000e+00 
4.910804025e+00 5.318986084e+01 -2.905000000e+00 
4.946863527e+00 5.317598922e+01 -1.715000000e+00 
4.985551409e+00 5.316178706e+01 -3.082000000e+00 
5.031755568e+00 5.314482895e+01 -1.197000000e+00 
5.083700197e+00 5.312584307e+01 -1.076000000e+00 
5.138134630e+00 5.310499155e+01 -2.149000000e+00 
5.190630133e+00 5.308202115e+01 -4.318000000e+00 
5.228799092e+00 5.306163458e+01 -4.188000000e+00 
5.255704083e+00 5.304294755e+01 -1.071800000e+01 
1.066856822e+00 5.721783829e+01 -9.625500000e+01 
1.069478805e+00 5.702228027e+01 -9.311100000e+01 
1.084659924e+00 5.681759636e+01 -1.266550000e+02 
1.115180093e+00 5.660493029e+01 -1.121690000e+02 
1.163128828e+00 5.638827496e+01 -1.233960000e+02 
1.228603120e+00 5.617358152e+01 -9.840400000e+01 
1.309450180e+00 5.596720665e+01 -8.878400000e+01 
1.405369168e+00 5.577168339e+01 -8.710000000e+01 
1.509676099e+00 5.558962793e+01 -7.721900000e+01 
1.623517577e+00 5.541895394e+01 -7.750300000e+01 
1.744529901e+00 5.525978213e+01 -4.044700000e+01 
1.868838273e+00 5.511394506e+01 -3.398300000e+01 
1.993348181e+00 5.498190821e+01 -2.816300000e+01 
2.114136628e+00 5.486482711e+01 -2.445500000e+01 
2.235155949e+00 5.475635318e+01 -2.273500000e+01 
2.350348271e+00 5.466021036e+01 -2.262700000e+01 
2.462810961e+00 5.457215362e+01 -2.254100000e+01 
2.579667218e+00 5.448619037e+01 -2.278900000e+01 
2.707041014e+00 5.439815774e+01 -2.748600000e+01 
2.837106437e+00 5.431362255e+01 -3.881100000e+01 
2.960099168e+00 5.423572246e+01 -4.766000000e+01 
3.077429512e+00 5.416328909e+01 -4.282600000e+01 
3.203042867e+00 5.408660086e+01 -3.838000000e+01 
3.337077824e+00 5.400745592e+01 -4.308000000e+01 
3.467506500e+00 5.393174538e+01 -4.300000000e+01 
3.592683704e+00 5.386046605e+01 -3.771500000e+01 
3.713450018e+00 5.379335696e+01 -3.777500000e+01 
3.830566290e+00 5.373047751e+01 -3.813000000e+01 
3.945967158e+00 5.367093652e+01 -4.005700000e+01 
4.060358414e+00 5.361426722e+01 -3.839900000e+01 
4.166939332e+00 5.356360184e+01 -3.464300000e+01 
4.265458258e+00 5.351798169e+01 -2.991400000e+01 
4.355131054e+00 5.347706681e+01 -2.677700000e+01 
4.435916358e+00 5.344056744e+01 -2.605100000e+01 
4.508143346e+00 5.340816224e+01 -2.622600000e+01 
4.575379544e+00 5.337814404e+01 -2.638800000e+01 
4.635577999e+00 5.335134286e+01 -2.641200000e+01 
4.688759239e+00 5.332764297e+01 -2.643300000e+01 
4.735701170e+00 5.330662373e+01 -2.110100000e+01 
4.777505129e+00 5.328788468e+01 -2.264100000e+01 
4.815063015e+00 5.327087998e+01 -1.842000000e+01 
4.849117726e+00 5.325513677e+01 -1.317600000e+01 
4.880942328e+00 5.324074146e+01 -6.787000000e+00 
4.911023068e+00 5.322757981e+01 6.870000000e-01 
4.939903349e+00 5.321516150e+01 -4.447000000e+00 
4.973576577e+00 5.320078779e+01 -8.470000000e-01 
5.011625789e+00 5.318518398e+01 -1.410000000e+00 
5.056499266e+00 5.316765347e+01 -1.071000000e+00 
5.107954992e+00 5.314830595e+01 -1.048000000e+00 
5.163734169e+00 5.312731294e+01 -1.720000000e+00 
5.219474062e+00 5.310422989e+01 -1.740000000e+00 
5.262949472e+00 5.308251951e+01 -1.137000000e+00 
5.296453756e+00 5.306410529e+01 -1.318500000e+01 
1.328879854e+00 5.722157212e+01 -9.857300000e+01 
1.331094052e+00 5.703068268e+01 -9.609600000e+01 
1.345336892e+00 5.683141938e+01 -1.084030000e+02 
1.374018752e+00 5.662471890e+01 -1.240510000e+02 
1.419085563e+00 5.641417677e+01 -1.278040000e+02 
1.480884676e+00 5.620529663e+01 -1.018650000e+02 
1.557515045e+00 5.600447342e+01 -9.328900000e+01 
1.648890799e+00 5.581576453e+01 -9.176300000e+01 
1.748658535e+00 5.564058029e+01 -8.018000000e+01 
1.857379515e+00 5.547650468e+01 -7.324300000e+01 
1.972464954e+00 5.532330817e+01 -4.281300000e+01 
2.090439830e+00 5.518267375e+01 -3.688900000e+01 
2.208525106e+00 5.505506982e+01 -3.269000000e+01 
2.323039681e+00 5.494156799e+01 -2.615500000e+01 
2.437620190e+00 5.483606069e+01 -2.254100000e+01 
2.546648971e+00 5.474197709e+01 -2.248300000e+01 
2.652503166e+00 5.465565018e+01 -2.250700000e+01 
2.762590251e+00 5.457055971e+01 -2.611200000e+01 
2.882121813e+00 5.448273588e+01 -3.162900000e+01 
3.003880764e+00 5.439737568e+01 -3.893000000e+01 
3.119013671e+00 5.431802124e+01 -5.053300000e+01 
3.228954699e+00 5.424339549e+01 -4.279000000e+01 
3.346895939e+00 5.416367357e+01 -3.936500000e+01 
3.471331938e+00 5.408181525e+01 -4.438100000e+01 
3.592610539e+00 5.400291414e+01 -4.625100000e+01 
3.708952045e+00 5.392826512e+01 -4.259800000e+01 
3.820757830e+00 5.385803241e+01 -4.036800000e+01 
3.928758982e+00 5.379234021e+01 -4.032200000e+01 
4.035399776e+00 5.372979586e+01 -4.156100000e+01 
4.141219480e+00 5.367008702e+01 -4.116000000e+01 
4.240878986e+00 5.361611217e+01 -3.787300000e+01 
4.333510729e+00 5.356721773e+01 -3.181000000e+01 
4.418119041e+00 5.352317687e+01 -2.709300000e+01 
4.494549169e+00 5.348376872e+01 -2.600900000e+01 
4.563053813e+00 5.344869871e+01 -2.610600000e+01 
4.626966533e+00 5.341619645e+01 -2.604900000e+01 
4.684382225e+00 5.338718131e+01 -2.580200000e+01 
4.735309135e+00 5.336156938e+01 -2.543200000e+01 
4.780419479e+00 5.333893475e+01 -2.059500000e+01 
4.820643380e+00 5.331883235e+01 -2.018900000e+01 
4.856691135e+00 5.330070020e+01 -1.783700000e+01 
4.889150370e+00 5.328404242e+01 -1.289400000e+01 
4.919126831e+00 5.326875277e+01 -9.289000000e+00 
4.947259482e+00 5.325466868e+01 8.100000000e-02 
4.974271591e+00 5.324129802e+01 -6.680000000e-01 
5.005673468e+00 5.322597363e+01 -1.189000000e+00 
5.041271451e+00 5.320952154e+01 -7.580000000e-01 
5.083684356e+00 5.319126735e+01 -8.430000000e-01 
5.133457168e+00 5.317144927e+01 -1.475000000e+00 
5.189459630e+00 5.315037638e+01 -1.757000000e+00 
5.247791699e+00 5.312775632e+01 -1.512000000e+00 
5.297596599e+00 5.310561556e+01 -6.364000000e+00 
5.335458898e+00 5.308764135e+01 -8.575000000e+00 
1.620264763e+00 5.722595379e+01 -9.920300000e+01 
1.621771750e+00 5.704006949e+01 -9.886400000e+01 
1.634491321e+00 5.684646975e+01 -9.975200000e+01 
1.660539639e+00 5.664603232e+01 -1.130660000e+02 
1.701854818e+00 5.644200937e+01 -1.155210000e+02 
1.759074919e+00 5.623949839e+01 -1.148350000e+02 
1.830678023e+00 5.604470066e+01 -9.483500000e+01 
1.916895205e+00 5.586335974e+01 -9.458800000e+01 
2.011488729e+00 5.569596137e+01 -9.005500000e+01 
2.114411243e+00 5.553901285e+01 -7.598800000e+01 
2.222827832e+00 5.539206514e+01 -4.392400000e+01 
2.333695285e+00 5.525681426e+01 -3.810800000e+01 
2.444733551e+00 5.513376502e+01 -3.342800000e+01 
2.552664964e+00 5.502387494e+01 -2.777900000e+01 
2.660771808e+00 5.492135319e+01 -2.276100000e+01 
2.763980350e+00 5.482928796e+01 -2.235900000e+01 
2.863817574e+00 5.474461616e+01 -2.456000000e+01 
2.967777397e+00 5.466025911e+01 -3.314000000e+01 
3.080023705e+00 5.457246542e+01 -3.619500000e+01 
3.193709791e+00 5.448600734e+01 -4.034000000e+01 
3.300953353e+00 5.440491960e+01 -4.434500000e+01 
3.403107372e+00 5.432782820e+01 -4.322000000e+01 
3.512626391e+00 5.424486659e+01 -4.225500000e+01 
3.627813356e+00 5.415930505e+01 -4.460000000e+01 
3.739737336e+00 5.407688933e+01 -4.795000000e+01 
3.846833744e+00 5.399905575e+01 -4.759500000e+01 
3.949352278e+00 5.392633114e+01 -4.249500000e+01 
4.048236248e+00 5.385826996e+01 -4.226700000e+01 
4.145841552e+00 5.379307834e+01 -4.428300000e+01 
4.242478160e+00 5.373051277e+01 -4.247200000e+01 
4.333996435e+00 5.367300732e+01 -4.015600000e+01 
4.419147074e+00 5.362039387e+01 -3.512700000e+01 
4.496941055e+00 5.357270705e+01 -2.844300000e+01 
4.567264434e+00 5.352988043e+01 -2.611700000e+01 
4.630412555e+00 5.349171042e+01 -2.564900000e+01 
4.689498474e+00 5.345635290e+01 -2.479300000e+01 
4.742826641e+00 5.342484480e+01 -2.406100000e+01 
4.790450934e+00 5.339714910e+01 -2.356300000e+01 
4.832984305e+00 5.337283398e+01 -2.205900000e+01 
4.871236146e+00 5.335141301e+01 -2.022200000e+01 
4.905788857e+00 5.333230127e+01 -1.633700000e+01 
4.937125562e+00 5.331497532e+01 -1.291000000e+01 
4.965750742e+00 5.329890256e+01 -1.043700000e+01 
4.992193128e+00 5.328376712e+01 -1.969000000e+00 
5.017406432e+00 5.326917354e+01 -8.620000000e-01 
5.045733387e+00 5.325302060e+01 -8.460000000e-01 
5.077793977e+00 5.323574685e+01 -8.400000000e-01 
5.116281871e+00 5.321669777e+01 -2.045000000e+00 
5.162500497e+00 5.319619814e+01 -3.020000000e+00 
5.216576107e+00 5.317482830e+01 -1.467000000e+00 
5.275338852e+00 5.315277630e+01 -2.179000000e+00 
5.330152647e+00 5.313155228e+01 -3.263000000e+00 
5.374505896e+00 5.311269098e+01 -2.925000000e+00 
1.926786307e+00 5.723049668e+01 -9.662100000e+01 
1.927577624e+00 5.704961427e+01 -9.641700000e+01 
1.938708625e+00 5.686160821e+01 -9.674100000e+01 
1.962066627e+00 5.666742535e+01 -1.027910000e+02 
1.999532713e+00 5.647009764e+01 -1.006690000e+02 
2.051980457e+00 5.627434414e+01 -1.056990000e+02 
2.118267173e+00 5.608598024e+01 -9.033500000e+01 
2.199175408e+00 5.591195715e+01 -8.891000000e+01 
2.287838572e+00 5.575282129e+01 -9.190900000e+01 
2.384310341e+00 5.560313003e+01 -7.824000000e+01 
2.485297762e+00 5.546228158e+01 -4.687100000e+01 
2.588349340e+00 5.533216629e+01 -3.685200000e+01 
2.691848011e+00 5.521343565e+01 -3.317700000e+01 
2.792980750e+00 5.510697248e+01 -2.931000000e+01 
2.894666057e+00 5.500733836e+01 -2.518000000e+01 
2.992375981e+00 5.491731312e+01 -2.480700000e+01 
3.087141119e+00 5.483408056e+01 -3.120000000e+01 
3.186333497e+00 5.475001031e+01 -3.821700000e+01 
3.292724360e+00 5.466177094e+01 -4.195000000e+01 
3.399586757e+00 5.457377604e+01 -4.264800000e+01 
3.499801512e+00 5.449063245e+01 -4.300000000e+01 
3.594364461e+00 5.441093379e+01 -4.290700000e+01 
3.694893058e+00 5.432492576e+01 -4.310200000e+01 
3.801151619e+00 5.423522530e+01 -4.540000000e+01 
3.903556058e+00 5.414896712e+01 -4.778700000e+01 
4.000572840e+00 5.406806507e+01 -4.770300000e+01 
4.092850624e+00 5.399309121e+01 -4.541000000e+01 
4.182198996e+00 5.392258111e+01 -4.294300000e+01 
4.270300439e+00 5.385479011e+01 -4.435800000e+01 
4.357451463e+00 5.378927582e+01 -4.270100000e+01 
4.440292907e+00 5.372824211e+01 -4.106000000e+01 
4.517351203e+00 5.367203696e+01 -3.760800000e+01 
4.587686470e+00 5.362092462e+01 -3.063600000e+01 
4.651201585e+00 5.357493640e+01 -2.701300000e+01 
4.708186096e+00 5.353389825e+01 -2.544500000e+01 
4.761500132e+00 5.349584024e+01 -2.453700000e+01 
4.809639411e+00 5.346189778e+01 -2.355400000e+01 
4.852713847e+00 5.343205735e+01 -2.277200000e+01 
4.891351072e+00 5.340588787e+01 -2.165200000e+01 
4.926362740e+00 5.338288573e+01 -2.092100000e+01 
4.958353637e+00 5.336247504e+01 -1.844300000e+01 
4.987883513e+00 5.334416704e+01 -1.065100000e+01 
5.015166557e+00 5.332724538e+01 -1.055100000e+01 
5.040373577e+00 5.331115501e+01 -1.004100000e+01 
5.064383226e+00 5.329549300e+01 -3.786000000e+00 
5.089950358e+00 5.327886744e+01 -1.819000000e+00 
5.118486684e+00 5.326104688e+01 -1.020000000e+00 
5.152511655e+00 5.324131415e+01 -1.297900000e+01 
5.193768371e+00 5.321987518e+01 -7.544000000e+00 
5.243386846e+00 5.319734946e+01 -1.287000000e+00 
5.299270028e+00 5.317458039e+01 -2.026000000e+00 
5.354828619e+00 5.315338845e+01 -2.032000000e+00 
5.402934164e+00 5.313620309e+01 -2.707000000e+00 
2.209292006e+00 5.723426284e+01 -9.021200000e+01 
2.209624282e+00 5.705776297e+01 -8.938100000e+01 
2.219604072e+00 5.687472429e+01 -8.725000000e+01 
2.241032612e+00 5.668615472e+01 -8.514600000e+01 
2.275645402e+00 5.649497538e+01 -9.120200000e+01 
2.324341430e+00 5.630562672e+01 -8.917200000e+01 
2.386212556e+00 5.612345263e+01 -8.253900000e+01 
2.462443151e+00 5.595547611e+01 -8.432000000e+01 
2.545842014e+00 5.580257770e+01 -9.146600000e+01 
2.636515493e+00 5.565867383e+01 -7.324000000e+01 
2.731059162e+00 5.552306915e+01 -4.776500000e+01 
2.827409857e+00 5.539757428e+01 -3.862500000e+01 
2.924328979e+00 5.528281683e+01 -3.291500000e+01 
3.019373448e+00 5.517958623e+01 -2.956000000e+01 
3.115215765e+00 5.508272332e+01 -2.762000000e+01 
3.207757055e+00 5.499472308e+01 -3.047500000e+01 
3.297848795e+00 5.491281186e+01 -3.716500000e+01 
3.392930855e+00 5.482874504e+01 -4.302000000e+01 
3.494488097e+00 5.473973720e+01 -4.526500000e+01 
3.596172930e+00 5.464992449e+01 -4.333000000e+01 
3.691060875e+00 5.456450362e+01 -4.303500000e+01 
3.779709529e+00 5.448208136e+01 -4.316000000e+01 
3.872915073e+00 5.439300420e+01 -4.441500000e+01 
3.970748140e+00 5.430019614e+01 -4.710500000e+01 
4.064732309e+00 5.421067390e+01 -4.762000000e+01 
4.152492954e+00 5.412706098e+01 -4.755300000e+01 
4.234562039e+00 5.404962168e+01 -4.725900000e+01 
4.313547554e+00 5.397653153e+01 -4.515300000e+01 
4.391546234e+00 5.390604002e+01 -4.521100000e+01 
4.468929395e+00 5.383763864e+01 -4.291400000e+01 
4.543054486e+00 5.377350959e+01 -4.137300000e+01 
4.612419314e+00 5.371439832e+01 -3.907400000e+01 
4.676057797e+00 5.366070497e+01 -3.345600000e+01 
4.733674511e+00 5.361244998e+01 -2.909200000e+01 
4.785368247e+00 5.356941620e+01 -2.587100000e+01 
4.833646743e+00 5.352947610e+01 -2.459600000e+01 
4.877102017e+00 5.349382283e+01 -2.363700000e+01 
4.915864828e+00 5.346244984e+01 -2.289700000e+01 
4.950588472e+00 5.343492270e+01 -2.274200000e+01 
4.982121564e+00 5.341071322e+01 -2.389000000e+01 
5.011210661e+00 5.338926695e+01 -2.079900000e+01 
5.038524720e+00 5.337008953e+01 -8.566000000e+00 
5.064357479e+00 5.335248270e+01 -6.632000000e+00 
5.088376165e+00 5.333562108e+01 -1.525500000e+01 
5.111474924e+00 5.331917425e+01 -1.889500000e+01 
5.135167785e+00 5.330239675e+01 -1.031200000e+01 
5.161198510e+00 5.328442781e+01 -1.465200000e+01 
5.191664727e+00 5.326447074e+01 -7.743000000e+00 
5.228319909e+00 5.324257611e+01 -5.991000000e+00 
5.272891784e+00 5.321932453e+01 -8.190000000e+00 
5.324415942e+00 5.319596514e+01 -5.786000000e+00 
5.378280258e+00 5.317492446e+01 -3.937000000e+00 
5.423034299e+00 5.315845196e+01 -1.919000000e+00 
2.462833001e+00 5.723714113e+01 -8.807100000e+01 
2.463043932e+00 5.706446793e+01 -8.479800000e+01 
2.472424018e+00 5.688590126e+01 -7.910400000e+01 
2.492702892e+00 5.670241524e+01 -7.393200000e+01 
2.525468320e+00 5.651683895e+01 -7.607700000e+01 
2.571482126e+00 5.633336973e+01 -7.702700000e+01 
2.629886812e+00 5.615690943e+01 -7.975900000e+01 
2.701771750e+00 5.599399939e+01 -8.366300000e+01 
2.779922687e+00 5.584648659e+01 -8.642000000e+01 
2.864896051e+00 5.570755830e+01 -6.593100000e+01 
2.953571207e+00 5.557651807e+01 -4.574600000e+01 
3.044064292e+00 5.545508317e+01 -3.773800000e+01 
3.135256256e+00 5.534380213e+01 -3.286600000e+01 
3.224918731e+00 5.524331825e+01 -3.105000000e+01 
3.315444534e+00 5.514870606e+01 -3.152600000e+01 
3.403105194e+00 5.506215681e+01 -3.292500000e+01 
3.488680058e+00 5.498096030e+01 -4.041100000e+01 
3.579821497e+00 5.489627690e+01 -4.387500000e+01 
3.677036133e+00 5.480600637e+01 -4.514500000e+01 
3.774536941e+00 5.471413428e+01 -4.658400000e+01 
3.865429853e+00 5.462637709e+01 -4.664400000e+01 
3.950135905e+00 5.454141353e+01 -4.608200000e+01 
4.038754349e+00 5.444959905e+01 -4.656900000e+01 
4.130127076e+00 5.435474141e+01 -4.757900000e+01 
4.218169185e+00 5.426304420e+01 -4.748600000e+01 
4.299858896e+00 5.417748902e+01 -4.741000000e+01 
4.375398228e+00 5.409831385e+01 -4.735500000e+01 
4.446962304e+00 5.402362298e+01 -4.609000000e+01 
4.516822818e+00 5.395128883e+01 -4.578600000e+01 
4.585745982e+00 5.388079161e+01 -4.304200000e+01 
4.651673341e+00 5.381428950e+01 -4.153900000e+01 
4.713449965e+00 5.375283110e+01 -3.931900000e+01 
4.770321723e+00 5.369698338e+01 -3.447300000e+01 
4.821970641e+00 5.364682828e+01 -3.016700000e+01 
4.868408592e+00 5.360216441e+01 -2.605700000e+01 
4.911820195e+00 5.356075365e+01 -2.473300000e+01 
4.950883351e+00 5.352384456e+01 -2.388800000e+01 
4.985680446e+00 5.349142434e+01 -2.319400000e+01 
5.016791747e+00 5.346302012e+01 -2.407700000e+01 
5.044962002e+00 5.343802879e+01 -2.567100000e+01 
5.070957686e+00 5.341583844e+01 -2.183500000e+01 
5.095532722e+00 5.339590653e+01 -1.194900000e+01 
5.119109333e+00 5.337754137e+01 -4.675000000e+00 
5.141473639e+00 5.335999228e+01 -5.378000000e+00 
5.163365212e+00 5.334291038e+01 -1.342100000e+01 
5.185374939e+00 5.332607899e+01 -1.513700000e+01 
5.209422348e+00 5.330809473e+01 -1.111400000e+01 
5.237015018e+00 5.328805072e+01 -8.036000000e+00 
5.269438524e+00 5.326578288e+01 -2.670000000e-01 
5.308133271e+00 5.324146005e+01 -1.129000000e+00 
5.352570399e+00 5.321597902e+01 -1.000000000e+00 
5.398975827e+00 5.319212215e+01 -3.144000000e+00 
5.438524215e+00 5.317314242e+01 -3.984000000e+00 
2.702245254e+00 5.723963052e+01 -8.600200000e+01 
2.702372147e+00 5.707054661e+01 -8.034300000e+01 
2.711335752e+00 5.689619995e+01 -7.236700000e+01 
2.730688656e+00 5.671754600e+01 -7.157300000e+01 
2.761875657e+00 5.653727948e+01 -7.619500000e+01 
2.805526375e+00 5.635930207e+01 -7.793300000e+01 
2.860795354e+00 5.618812187e+01 -7.989700000e+01 
2.928664670e+00 5.602972872e+01 -8.043300000e+01 
3.001896762e+00 5.588713352e+01 -8.183100000e+01 
3.081521064e+00 5.575277794e+01 -7.092100000e+01 
3.164710132e+00 5.562593109e+01 -4.751300000e+01 
3.249759020e+00 5.550820422e+01 -3.955000000e+01 
3.335650595e+00 5.540005635e+01 -3.382400000e+01 
3.420343985e+00 5.530197322e+01 -3.265500000e+01 
3.505946326e+00 5.520926069e+01 -3.256900000e+01 
3.589090488e+00 5.512381038e+01 -3.438300000e+01 
3.670499744e+00 5.504299805e+01 -4.375500000e+01 
3.757986451e+00 5.495742430e+01 -4.684400000e+01 
3.851210377e+00 5.486569609e+01 -4.795600000e+01 
3.944876208e+00 5.477170763e+01 -4.794600000e+01 
4.032147755e+00 5.468165225e+01 -4.779600000e+01 
4.113379726e+00 5.459427001e+01 -4.770100000e+01 
4.198096447e+00 5.449982829e+01 -4.757000000e+01 
4.283029196e+00 5.440274752e+01 -4.744100000e+01 
4.366450469e+00 5.430932973e+01 -4.737300000e+01 
4.443332383e+00 5.422193486e+01 -4.731400000e+01 
